X,Y,Z
-1.03,-0.444781,1.875
-1.03431,-0.44834,1.89
-1.27532,-0.572404,2.413
-1.28399,-0.578572,2.439
-1.27891,-0.578572,2.439
-1.2472,-0.566474,2.388
-1.28281,-0.584977,2.466
-1.26369,-0.578572,2.439
-1.25861,-0.578572,2.439
-1.26741,-0.584977,2.466
-1.26228,-0.584977,2.466
-1.24338,-0.578572,2.439
-1.25201,-0.584977,2.466
-0.986836,-0.698841,2.946
-0.980705,-0.698841,2.946
-0.974574,-0.698841,2.946
-0.968443,-0.698841,2.946
-0.962312,-0.698841,2.946
-0.943847,-0.689826,2.908
-0.937795,-0.689826,2.908
-0.943919,-0.698841,2.946
-0.925691,-0.689826,2.908
-0.94399,-0.708092,2.985
-0.950345,-0.717581,3.025
-0.944049,-0.717581,3.025
-0.937754,-0.717581,3.025
-0.931458,-0.717581,3.025
-0.937702,-0.727307,3.066
-1.0755,-0.882209,3.719
-1.06776,-0.882209,3.719
-1.07769,-0.896917,3.781
-1.05228,-0.882209,3.719
-1.04454,-0.882209,3.719
-1.0368,-0.882209,3.719
-1.01246,-0.867976,3.659
-1.00484,-0.867976,3.659
-0.997225,-0.867976,3.659
-1.00584,-0.882209,3.719
-1.01474,-0.896917,3.781
-1.00687,-0.896917,3.781
-0.999,-0.896917,3.781
-0.991131,-0.896917,3.781
-0.983262,-0.896917,3.781
-0.959399,-0.882209,3.719
-0.951659,-0.882209,3.719
-0.928691,-0.867976,3.659
-0.906476,-0.854218,3.601
-0.898982,-0.854218,3.601
-0.891487,-0.854218,3.601
-0.898231,-0.867976,3.659
-0.905221,-0.882209,3.719
-0.883001,-0.867976,3.659
-0.86151,-0.854218,3.601
-0.854016,-0.854218,3.601
-0.846522,-0.854218,3.601
-0.813165,-0.827887,3.49
-0.781886,-0.803216,3.386
-0.774839,-0.803216,3.386
-0.767793,-0.803216,3.386
-0.760746,-0.803216,3.386
-0.765051,-0.815314,3.437
-0.746652,-0.803216,3.386
-0.739606,-0.803216,3.386
-0.766958,-0.840934,3.545
-0.747796,-0.827887,3.49
-0.697671,-0.779969,3.288
-0.768777,-0.867976,3.659
-0.773644,-0.882209,3.719
-0.765904,-0.882209,3.719
-0.770804,-0.896917,3.781
-0.762935,-0.896917,3.781
-0.755066,-0.896917,3.781
-0.759845,-0.912099,3.845
-0.751843,-0.912099,3.845
-0.743841,-0.912099,3.845
-0.735839,-0.912099,3.845
-0.727837,-0.912099,3.845
-0.719835,-0.912099,3.845
-0.711833,-0.912099,3.845
-0.703831,-0.912099,3.845
-0.72026,-0.944123,3.98
-0.699812,-0.927992,3.912
-0.691671,-0.927992,3.912
-0.683529,-0.927992,3.912
-0.675388,-0.927992,3.912
-0.667246,-0.927992,3.912
-0.637034,-0.896917,3.781
-0.580742,-0.827887,3.49
-0.532563,-0.76882,3.241
-0.107877,-0.189299,0.798
-0.106616,-0.190011,0.801
-0.104556,-0.189299,0.798
-0.102637,-0.188825,0.796
-0.10098,-0.188825,0.796
-0.0993238,-0.188825,0.796
-0.0979126,-0.189299,0.798
-0.0962518,-0.189299,0.798
-0.094354,-0.188825,0.796
-0.091067,-0.185504,0.782
-0.0890965,-0.184792,0.779
-0.0878121,-0.185504,0.782
-0.0856336,-0.184317,0.777
-0.0833678,-0.182894,0.771
-0.081233,-0.181708,0.766
-0.0793269,-0.180996,0.763
-0.077739,-0.180996,0.763
-0.075652,-0.17981,0.758
-0.0738791,-0.179336,0.756
-0.0461466,-0.154903,0.653
-0.0445819,-0.154191,0.65
-0.0432291,-0.154191,0.65
-0.0418764,-0.154191,0.65
-0.0403989,-0.153716,0.648
-0.0389298,-0.153242,0.646
-0.0375854,-0.153242,0.646
-0.0361288,-0.152768,0.644
-0.0347885,-0.152768,0.644
-0.0332405,-0.151819,0.64
-0.031759,-0.151107,0.637
-0.0303378,-0.150633,0.635
-0.0291076,-0.151107,0.637
-0.0274766,-0.149447,0.63
-0.0260824,-0.148972,0.628
-0.0246966,-0.148498,0.626
-0.987491,-0.407247,1.732
-1.00661,-0.416652,1.772
-1.00292,-0.416652,1.772
-0.999234,-0.416652,1.772
-0.995546,-0.416652,1.772
-0.999695,-0.419944,1.786
-1.01215,-0.426763,1.815
-1.01615,-0.430055,1.829
-1.02065,-0.433582,1.844
-1.02508,-0.437109,1.859
-1.03,-0.440871,1.875
-1.04306,-0.44816,1.906
-1.28907,-0.573485,2.439
-1.2982,-0.579834,2.466
-1.27891,-0.573485,2.439
-1.26026,-0.567372,2.413
-1.29685,-0.586182,2.493
-1.27768,-0.579834,2.466
-1.27254,-0.579834,2.466
-1.28129,-0.586182,2.493
-1.2761,-0.586182,2.493
-1.25715,-0.579834,2.466
-1.26572,-0.586182,2.493
-1.06532,-0.720912,3.066
-1.05894,-0.720912,3.066
-1.05256,-0.720912,3.066
-1.06051,-0.730788,3.108
-1.06862,-0.740898,3.151
-1.06206,-0.740898,3.151
-1.02703,-0.720912,3.066
-1.02065,-0.720912,3.066
-1.01427,-0.720912,3.066
-1.00789,-0.720912,3.066
-0.988117,-0.711272,3.025
-0.968839,-0.701867,2.985
-0.962627,-0.701867,2.985
-0.969231,-0.711272,3.025
-0.950202,-0.701867,2.985
-0.969606,-0.720912,3.066
-0.97642,-0.730788,3.108
-0.956844,-0.720912,3.066
-0.950464,-0.720912,3.066
-0.931458,-0.711272,3.025
-0.937702,-0.720912,3.066
-1.0755,-0.874453,3.719
-1.06776,-0.874453,3.719
-1.06002,-0.874453,3.719
-1.05228,-0.874453,3.719
-1.04454,-0.874453,3.719
-1.02007,-0.860345,3.659
-1.01246,-0.860345,3.659
-0.988912,-0.846707,3.601
-0.997225,-0.860345,3.659
-1.00584,-0.874453,3.719
-0.998098,-0.874453,3.719
-1.00687,-0.889031,3.781
-0.982619,-0.874453,3.719
-0.991131,-0.889031,3.781
-0.967139,-0.874453,3.719
-0.943921,-0.860345,3.659
-0.936306,-0.860345,3.659
-0.91397,-0.846707,3.601
-0.892379,-0.83354,3.545
-0.885001,-0.83354,3.545
-0.877624,-0.83354,3.545
-0.898231,-0.860345,3.659
-0.890616,-0.860345,3.659
-0.883001,-0.860345,3.659
-0.848113,-0.83354,3.545
-0.840735,-0.83354,3.545
-0.833358,-0.83354,3.545
-0.813165,-0.820608,3.49
-0.781886,-0.796154,3.386
-0.763398,-0.784398,3.336
-0.756455,-0.784398,3.336
-0.760746,-0.796154,3.386
-0.765051,-0.808146,3.437
-0.746652,-0.796154,3.386
-0.739606,-0.796154,3.386
-0.766958,-0.83354,3.545
-0.73644,-0.808146,3.437
-0.707856,-0.784398,3.336
-0.768777,-0.860345,3.659
-0.773644,-0.874453,3.719
-0.765904,-0.874453,3.719
-0.770804,-0.889031,3.781
-0.762935,-0.889031,3.781
-0.755066,-0.889031,3.781
-0.759845,-0.904079,3.845
-0.751843,-0.904079,3.845
-0.73146,-0.889031,3.781
-0.735839,-0.904079,3.845
-0.727837,-0.904079,3.845
-0.719835,-0.904079,3.845
-0.711833,-0.904079,3.845
-0.703831,-0.904079,3.845
-0.707954,-0.919833,3.912
-0.687827,-0.904079,3.845
-0.679825,-0.904079,3.845
-0.671823,-0.904079,3.845
-0.663821,-0.904079,3.845
-0.655818,-0.904079,3.845
-0.626588,-0.874453,3.719
-0.580742,-0.820608,3.49
-0.540286,-0.773111,3.288
-0.102895,-0.187635,0.798
-0.101234,-0.187635,0.798
-0.0995733,-0.187635,0.798
-0.0979126,-0.187635,0.798
-0.0966137,-0.18834,0.801
-0.0945911,-0.187635,0.798
-0.0914164,-0.184578,0.785
-0.0894396,-0.183873,0.782
-0.088149,-0.184578,0.785
-0.085854,-0.183167,0.779
-0.0833678,-0.181286,0.771
-0.0815511,-0.180816,0.769
-0.0796388,-0.18011,0.766
-0.0780446,-0.18011,0.766
-0.075652,-0.178229,0.758
-0.0740745,-0.178229,0.758
-0.046288,-0.154011,0.655
-0.0447191,-0.153306,0.652
-0.0432291,-0.152835,0.65
-0.0418764,-0.152835,0.65
-0.0403989,-0.152365,0.648
-0.0390504,-0.152365,0.648
-0.0375854,-0.151895,0.646
-0.0361288,-0.151424,0.644
-0.0347885,-0.151424,0.644
-0.0332405,-0.150484,0.64
-0.031759,-0.149779,0.637
-0.0303378,-0.149308,0.635
-0.0290162,-0.149308,0.635
-0.0275639,-0.148603,0.632
-0.0260824,-0.147662,0.628
-0.0246966,-0.147192,0.626
-0.994903,-0.406665,1.745
-1.00661,-0.412957,1.772
-1.00292,-0.412957,1.772
-0.999234,-0.412957,1.772
-1.00341,-0.416219,1.786
-1.00753,-0.419482,1.8
-1.01996,-0.42624,1.829
-1.02448,-0.429736,1.844
-1.02065,-0.429736,1.844
-1.02508,-0.433232,1.859
-1.03,-0.43696,1.875
-1.28907,-0.568398,2.439
-1.2982,-0.57469,2.466
-1.27891,-0.568398,2.439
-1.27384,-0.568398,2.439
-1.29685,-0.580983,2.493
-1.27768,-0.57469,2.466
-1.27254,-0.57469,2.466
-1.28129,-0.580983,2.493
-1.2761,-0.580983,2.493
-1.25715,-0.57469,2.466
-1.26572,-0.580983,2.493
-1.26053,-0.580983,2.493
-1.09485,-0.734327,3.151
-1.08829,-0.734327,3.151
-1.08174,-0.734327,3.151
-1.07518,-0.734327,3.151
-1.08354,-0.744581,3.195
-1.07689,-0.744581,3.195
-1.05551,-0.734327,3.151
-1.04895,-0.734327,3.151
-1.04239,-0.734327,3.151
-1.0217,-0.724306,3.108
-1.00151,-0.714518,3.066
-0.981822,-0.704963,3.025
-0.988748,-0.714518,3.066
-0.982368,-0.714518,3.066
-0.975987,-0.714518,3.066
-0.982888,-0.724306,3.108
-0.97642,-0.724306,3.108
-0.969952,-0.724306,3.108
-0.950464,-0.714518,3.066
-0.931458,-0.704963,3.025
-0.937702,-0.714518,3.066
-1.04137,-0.839197,3.601
-1.03388,-0.839197,3.601
-1.04291,-0.852714,3.659
-1.0353,-0.852714,3.659
-1.02769,-0.852714,3.659
-1.02007,-0.852714,3.659
-1.01246,-0.852714,3.659
-0.988912,-0.839197,3.601
-0.981418,-0.839197,3.601
-0.98961,-0.852714,3.659
-0.981996,-0.852714,3.659
-0.990358,-0.866697,3.719
-0.966766,-0.852714,3.659
-0.974879,-0.866697,3.719
-0.951536,-0.852714,3.659
-0.943921,-0.852714,3.659
-0.921464,-0.839197,3.601
-0.899757,-0.826147,3.545
-0.878534,-0.813329,3.49
-0.871271,-0.813329,3.49
-0.864007,-0.813329,3.49
-0.883993,-0.839197,3.601
-0.876499,-0.839197,3.601
-0.869005,-0.839197,3.601
-0.848113,-0.826147,3.545
-0.840735,-0.826147,3.545
-0.833358,-0.826147,3.545
-0.813165,-0.813329,3.49
-0.781886,-0.789092,3.386
-0.763398,-0.77744,3.336
-0.756455,-0.77744,3.336
-0.760746,-0.789092,3.386
-0.753699,-0.789092,3.386
-0.746652,-0.789092,3.386
-0.750746,-0.800978,3.437
-0.755059,-0.813329,3.49
-0.725512,-0.789092,3.386
-0.718465,-0.789092,3.386
-0.768777,-0.852714,3.659
-0.773644,-0.866697,3.719
-0.765904,-0.866697,3.719
-0.770804,-0.881145,3.781
-0.762935,-0.881145,3.781
-0.755066,-0.881145,3.781
-0.747197,-0.881145,3.781
-0.739328,-0.881145,3.781
-0.73146,-0.881145,3.781
-0.723591,-0.881145,3.781
-0.727837,-0.89606,3.845
-0.719835,-0.89606,3.845
-0.711833,-0.89606,3.845
-0.703831,-0.89606,3.845
-0.707954,-0.911674,3.912
-0.687827,-0.89606,3.845
-0.679825,-0.89606,3.845
-0.671823,-0.89606,3.845
-0.652771,-0.881145,3.781
-0.644902,-0.881145,3.781
-0.626588,-0.866697,3.719
-0.589894,-0.826147,3.545
-0.548173,-0.77744,3.336
-0.518355,-0.744581,3.195
-0.101615,-0.18667,0.801
-0.0999477,-0.18667,0.801
-0.0982807,-0.18667,0.801
-0.0966137,-0.18667,0.801
-0.0945911,-0.18597,0.798
-0.0916493,-0.183407,0.787
-0.0897827,-0.182941,0.785
-0.0883736,-0.183407,0.787
-0.085854,-0.181543,0.779
-0.0836922,-0.180377,0.774
-0.0815511,-0.179212,0.769
-0.0796388,-0.178513,0.766
-0.0780446,-0.178513,0.766
-0.075652,-0.176649,0.758
-0.0743677,-0.177348,0.761
-0.046288,-0.152645,0.655
-0.0447191,-0.151946,0.652
-0.0432291,-0.15148,0.65
-0.0418764,-0.15148,0.65
-0.0403989,-0.151014,0.648
-0.0389298,-0.150547,0.646
-0.037469,-0.150081,0.644
-0.0360166,-0.149615,0.642
-0.0347885,-0.150081,0.644
-0.0332405,-0.149149,0.64
-0.031759,-0.14845,0.637
-0.0302422,-0.147518,0.633
-0.0290162,-0.147984,0.635
-0.0275639,-0.147285,0.632
-0.0260824,-0.146353,0.628
-0.0246966,-0.145887,0.626
-0.994903,-0.403025,1.745
-1.00661,-0.409261,1.772
-1.00292,-0.409261,1.772
-1.00713,-0.412495,1.786
-1.00341,-0.412495,1.786
-1.00753,-0.415728,1.8
-1.01996,-0.422426,1.829
-1.02448,-0.42589,1.844
-1.02065,-0.42589,1.844
-1.02508,-0.429355,1.859
-1.03,-0.43305,1.875
-1.28907,-0.563311,2.439
-1.2982,-0.569547,2.466
-1.29307,-0.569547,2.466
-1.28794,-0.569547,2.466
-1.31142,-0.58225,2.521
-1.27768,-0.569547,2.466
-1.27254,-0.569547,2.466
-1.28129,-0.575783,2.493
-1.2761,-0.575783,2.493
-1.25715,-0.569547,2.466
-1.26572,-0.575783,2.493
-1.26053,-0.575783,2.493
-1.11014,-0.737917,3.195
-1.08829,-0.727755,3.151
-1.09684,-0.737917,3.195
-1.09019,-0.737917,3.195
-1.09914,-0.748541,3.241
-1.0924,-0.748541,3.241
-1.07025,-0.737917,3.195
-1.0636,-0.737917,3.195
-1.04239,-0.727755,3.151
-1.0217,-0.717824,3.108
-1.01523,-0.717824,3.108
-1.00876,-0.717824,3.108
-1.00229,-0.717824,3.108
-0.995825,-0.717824,3.108
-1.00304,-0.727755,3.151
-1.04137,-0.831687,3.601
-1.0178,-0.818753,3.545
-1.02638,-0.831687,3.601
-1.01889,-0.831687,3.601
-1.01139,-0.831687,3.601
-1.0039,-0.831687,3.601
-1.01246,-0.845083,3.659
-1.00484,-0.845083,3.659
-0.997225,-0.845083,3.659
-0.98961,-0.845083,3.659
-0.998098,-0.85894,3.719
-0.990358,-0.85894,3.719
-0.982619,-0.85894,3.719
-0.974879,-0.85894,3.719
-0.967139,-0.85894,3.719
-0.943921,-0.845083,3.659
-0.936306,-0.845083,3.659
-0.91397,-0.831687,3.601
-0.878534,-0.80605,3.49
-0.885001,-0.818753,3.545
-0.877624,-0.818753,3.545
-0.883993,-0.831687,3.601
-0.876499,-0.831687,3.601
-0.869005,-0.831687,3.601
-0.86151,-0.831687,3.601
-0.854016,-0.831687,3.601
-0.833358,-0.818753,3.545
-0.82598,-0.818753,3.545
-0.793663,-0.79381,3.437
-0.774839,-0.782031,3.386
-0.767793,-0.782031,3.386
-0.772204,-0.79381,3.437
-0.776849,-0.80605,3.49
-0.781714,-0.818753,3.545
-0.762322,-0.80605,3.49
-0.766958,-0.818753,3.545
-0.73644,-0.79381,3.437
-0.718465,-0.782031,3.386
-0.768777,-0.845083,3.659
-0.773644,-0.85894,3.719
-0.765904,-0.85894,3.719
-0.770804,-0.87326,3.781
-0.762935,-0.87326,3.781
-0.755066,-0.87326,3.781
-0.747197,-0.87326,3.781
-0.739328,-0.87326,3.781
-0.73146,-0.87326,3.781
-0.723591,-0.87326,3.781
-0.715722,-0.87326,3.781
-0.719835,-0.888041,3.845
-0.699984,-0.87326,3.781
-0.703831,-0.888041,3.845
-0.707954,-0.903516,3.912
-0.687827,-0.888041,3.845
-0.679825,-0.888041,3.845
-0.671823,-0.888041,3.845
-0.652771,-0.87326,3.781
-0.644902,-0.87326,3.781
-0.637034,-0.87326,3.781
-0.599212,-0.831687,3.601
-0.556389,-0.782031,3.386
-0.525818,-0.748541,3.241
-0.497772,-0.717824,3.108
-0.101615,-0.184999,0.801
-0.0999477,-0.184999,0.801
-0.0982807,-0.184999,0.801
-0.0966137,-0.184999,0.801
-0.0949467,-0.184999,0.801
-0.0919987,-0.182458,0.79
-0.0897827,-0.181304,0.785
-0.0883736,-0.181766,0.787
-0.0861847,-0.180611,0.782
-0.0836922,-0.178763,0.774
-0.0817632,-0.17807,0.771
-0.0799507,-0.177608,0.769
-0.0783503,-0.177608,0.769
-0.0759514,-0.175761,0.761
-0.0743677,-0.175761,0.761
-0.046288,-0.151279,0.655
-0.0447191,-0.150586,0.652
-0.0433621,-0.150586,0.652
-0.0420052,-0.150586,0.652
-0.0403989,-0.149662,0.648
-0.0390504,-0.149662,0.648
-0.0375854,-0.1492,0.646
-0.0361288,-0.148738,0.644
-0.0348966,-0.1492,0.646
-0.0332405,-0.147814,0.64
-0.0318587,-0.147583,0.639
-0.0302422,-0.146198,0.633
-0.0290162,-0.14666,0.635
-0.0275639,-0.145967,0.632
-0.0261655,-0.145505,0.63
-0.0247755,-0.145043,0.628
-0.0233938,-0.144581,0.626
-0.994903,-0.399386,1.745
-1.00661,-0.405565,1.772
-1.01085,-0.40877,1.786
-1.00713,-0.40877,1.786
-1.00341,-0.40877,1.786
-1.00753,-0.411974,1.8
-1.01996,-0.418611,1.829
-1.02448,-0.422044,1.844
-1.02065,-0.422044,1.844
-1.02508,-0.425478,1.859
-1.03,-0.42914,1.875
-1.30937,-0.558225,2.439
-1.30334,-0.564404,2.466
-1.2982,-0.564404,2.466
-1.29307,-0.564404,2.466
-1.27384,-0.558225,2.439
-1.31142,-0.576992,2.521
-1.27768,-0.564404,2.466
-1.27254,-0.564404,2.466
-1.26741,-0.564404,2.466
-1.26228,-0.564404,2.466
-1.24338,-0.558225,2.439
-1.25201,-0.564404,2.466
-1.24688,-0.564404,2.466
-1.29618,-0.824177,3.601
-1.28868,-0.824177,3.601
-1.26126,-0.81136,3.545
-1.11014,-0.731254,3.195
-1.10349,-0.731254,3.195
-1.09684,-0.731254,3.195
-1.09019,-0.731254,3.195
-1.11508,-0.752539,3.288
-1.0924,-0.741782,3.241
-1.07025,-0.731254,3.195
-1.0636,-0.731254,3.195
-1.05695,-0.731254,3.195
-1.03583,-0.721183,3.151
-1.02928,-0.721183,3.151
-1.02272,-0.721183,3.151
-1.03035,-0.731254,3.195
-1.0237,-0.731254,3.195
-1.12194,-0.851184,3.719
-1.1142,-0.851184,3.719
-1.0886,-0.837451,3.659
-1.08099,-0.837451,3.659
-1.07337,-0.837451,3.659
-1.04887,-0.824177,3.601
-1.0755,-0.851184,3.719
-1.03388,-0.824177,3.601
-1.02638,-0.824177,3.601
-1.0353,-0.837451,3.659
-1.01139,-0.824177,3.601
-1.0039,-0.824177,3.601
-0.996407,-0.824177,3.601
-1.00484,-0.837451,3.659
-0.997225,-0.837451,3.659
-0.98961,-0.837451,3.659
-0.998098,-0.851184,3.719
-0.990358,-0.851184,3.719
-0.982619,-0.851184,3.719
-0.991131,-0.865374,3.781
-0.967139,-0.851184,3.719
-0.959399,-0.851184,3.719
-0.951659,-0.851184,3.719
-0.94392,-0.851184,3.719
-0.906476,-0.824177,3.601
-0.913461,-0.837451,3.659
-0.9207,-0.851184,3.719
-0.898231,-0.837451,3.659
-0.890616,-0.837451,3.659
-0.883001,-0.837451,3.659
-0.875386,-0.837451,3.659
-0.854016,-0.824177,3.601
-0.833358,-0.81136,3.545
-0.82598,-0.81136,3.545
-0.793663,-0.786641,3.437
-0.78651,-0.786641,3.437
-0.779357,-0.786641,3.437
-0.772204,-0.786641,3.437
-0.776849,-0.798772,3.49
-0.781714,-0.81136,3.545
-0.774336,-0.81136,3.545
-0.766958,-0.81136,3.545
-0.73644,-0.786641,3.437
-0.729287,-0.786641,3.437
-0.768777,-0.837451,3.659
-0.773644,-0.851184,3.719
-0.765904,-0.851184,3.719
-0.770804,-0.865374,3.781
-0.762935,-0.865374,3.781
-0.755066,-0.865374,3.781
-0.747197,-0.865374,3.781
-0.739328,-0.865374,3.781
-0.73146,-0.865374,3.781
-0.723591,-0.865374,3.781
-0.715722,-0.865374,3.781
-0.707853,-0.865374,3.781
-0.699984,-0.865374,3.781
-0.703831,-0.880022,3.845
-0.695829,-0.880022,3.845
-0.687827,-0.880022,3.845
-0.668509,-0.865374,3.781
-0.66064,-0.865374,3.781
-0.652771,-0.865374,3.781
-0.644902,-0.865374,3.781
-0.637034,-0.865374,3.781
-0.608864,-0.837451,3.659
-0.56477,-0.786641,3.437
-0.533443,-0.752539,3.288
-0.504659,-0.721183,3.151
-0.478183,-0.692345,3.025
-0.101995,-0.184015,0.804
-0.100322,-0.184015,0.804
-0.0982807,-0.183328,0.801
-0.0966137,-0.183328,0.801
-0.0949467,-0.183328,0.801
-0.0919987,-0.180811,0.79
-0.0900114,-0.180124,0.787
-0.0883736,-0.180124,0.787
-0.0861847,-0.17898,0.782
-0.0836922,-0.177149,0.774
-0.0817632,-0.176462,0.771
-0.0799507,-0.176004,0.769
-0.0783503,-0.176004,0.769
-0.0759514,-0.174173,0.761
-0.0743677,-0.174173,0.761
-0.046288,-0.149913,0.655
-0.0447191,-0.149226,0.652
-0.0433621,-0.149226,0.652
-0.0420052,-0.149226,0.652
-0.0403989,-0.148311,0.648
-0.0390504,-0.148311,0.648
-0.0375854,-0.147853,0.646
-0.0361288,-0.147395,0.644
-0.0348966,-0.147853,0.646
-0.0332405,-0.14648,0.64
-0.0318587,-0.146251,0.639
-0.0302422,-0.144878,0.633
-0.0290162,-0.145335,0.635
-0.0275639,-0.144649,0.632
-0.0261655,-0.144191,0.63
-0.0247755,-0.143733,0.628
-0.0233938,-0.143275,0.626
-0.0218439,-0.141673,0.619
-0.994903,-0.395746,1.745
-0.998657,-0.398695,1.758
-1.01085,-0.405045,1.786
-1.00713,-0.405045,1.786
-1.00341,-0.405045,1.786
-1.00753,-0.40822,1.8
-1.01996,-0.414797,1.829
-1.01615,-0.414797,1.829
-1.02065,-0.418199,1.844
-1.01681,-0.418199,1.844
-1.03,-0.425229,1.875
-1.03431,-0.428631,1.89
-1.30545,-0.547241,2.413
-1.31445,-0.553138,2.439
-1.32386,-0.559261,2.466
-1.31761,-0.565385,2.493
-1.31242,-0.565385,2.493
-1.29307,-0.559261,2.466
-1.28794,-0.559261,2.466
-1.31142,-0.571735,2.521
-1.27768,-0.559261,2.466
-1.27254,-0.559261,2.466
-1.26741,-0.559261,2.466
-1.26228,-0.559261,2.466
-1.24338,-0.553138,2.439
-1.25201,-0.559261,2.466
-1.24688,-0.559261,2.466
-1.31705,-0.82982,3.659
-1.30944,-0.82982,3.659
-1.28119,-0.816667,3.601
-1.14245,-0.745682,3.288
-1.11938,-0.735023,3.241
-1.12877,-0.745682,3.288
-1.12193,-0.745682,3.288
-1.13136,-0.756567,3.336
-1.12442,-0.756567,3.336
-1.1014,-0.745682,3.288
-1.11053,-0.756567,3.336
-1.10359,-0.756567,3.336
-1.21596,-0.872003,3.845
-1.22901,-0.887198,3.912
-1.26425,-0.918721,4.051
-1.27875,-0.935504,4.125
-1.24738,-0.918721,4.051
-1.23895,-0.918721,4.051
-1.23052,-0.918721,4.051
-1.18016,-0.887198,3.912
-1.15194,-0.872003,3.845
-1.1249,-0.857488,3.781
-1.11703,-0.857488,3.781
-1.09098,-0.843428,3.719
-1.06576,-0.82982,3.659
-1.0755,-0.843428,3.719
-1.03388,-0.816667,3.601
-1.02638,-0.816667,3.601
-1.0353,-0.82982,3.659
-1.01139,-0.816667,3.601
-0.988289,-0.803966,3.545
-0.996407,-0.816667,3.601
-0.988912,-0.816667,3.601
-0.981418,-0.816667,3.601
-0.973924,-0.816667,3.601
-0.981996,-0.82982,3.659
-0.990358,-0.843428,3.719
-0.966766,-0.82982,3.659
-0.974879,-0.843428,3.719
-0.967139,-0.843428,3.719
-0.959399,-0.843428,3.719
-0.951659,-0.843428,3.719
-0.94392,-0.843428,3.719
-0.921076,-0.82982,3.659
-0.913461,-0.82982,3.659
-0.905846,-0.82982,3.659
-0.898231,-0.82982,3.659
-0.905221,-0.843428,3.719
-0.897481,-0.843428,3.719
-0.875386,-0.82982,3.659
-0.867772,-0.82982,3.659
-0.846522,-0.816667,3.601
-0.82598,-0.803966,3.545
-0.805902,-0.791493,3.49
-0.798638,-0.791493,3.49
-0.791375,-0.791493,3.49
-0.784112,-0.791493,3.49
-0.776849,-0.791493,3.49
-0.781714,-0.803966,3.545
-0.774336,-0.803966,3.545
-0.766958,-0.803966,3.545
-0.747796,-0.791493,3.49
-0.740533,-0.791493,3.49
-0.768777,-0.82982,3.659
-0.773644,-0.843428,3.719
-0.765904,-0.843428,3.719
-0.770804,-0.857488,3.781
-0.762935,-0.857488,3.781
-0.755066,-0.857488,3.781
-0.747197,-0.857488,3.781
-0.739328,-0.857488,3.781
-0.73146,-0.857488,3.781
-0.723591,-0.857488,3.781
-0.715722,-0.857488,3.781
-0.707853,-0.857488,3.781
-0.699984,-0.857488,3.781
-0.703831,-0.872003,3.845
-0.695829,-0.872003,3.845
-0.676378,-0.857488,3.781
-0.668509,-0.857488,3.781
-0.66064,-0.857488,3.781
-0.642067,-0.843428,3.719
-0.634327,-0.843428,3.719
-0.626588,-0.843428,3.719
-0.608864,-0.82982,3.659
-0.56477,-0.779473,3.437
-0.54123,-0.756567,3.336
-0.511705,-0.72459,3.195
-0.484664,-0.695334,3.066
-0.100322,-0.182338,0.804
-0.0986488,-0.182338,0.804
-0.0969755,-0.182338,0.804
-0.0949467,-0.181658,0.801
-0.092348,-0.179844,0.793
-0.0900114,-0.178483,0.787
-0.0883736,-0.178483,0.787
-0.0865153,-0.178029,0.785
-0.0840165,-0.176215,0.777
-0.0817632,-0.174854,0.771
-0.0799507,-0.174401,0.769
-0.0783503,-0.174401,0.769
-0.0761511,-0.17304,0.763
-0.0748563,-0.17372,0.766
-0.0727839,-0.172586,0.761
-0.046288,-0.148547,0.655
-0.0447876,-0.148093,0.653
-0.0433621,-0.147866,0.652
-0.0420052,-0.147866,0.652
-0.0403989,-0.146959,0.648
-0.0389298,-0.146506,0.646
-0.037469,-0.146052,0.644
-0.0361288,-0.146052,0.644
-0.0348966,-0.146506,0.646
-0.0332405,-0.145145,0.64
-0.031759,-0.144464,0.637
-0.0302422,-0.143557,0.633
-0.0289248,-0.143557,0.633
-0.0275639,-0.143331,0.632
-0.0261655,-0.142877,0.63
-0.0247755,-0.142423,0.628
-0.0233938,-0.14197,0.626
-0.0219145,-0.140836,0.621
-0.994903,-0.392107,1.745
-0.998657,-0.395028,1.758
-1.00292,-0.398174,1.772
-1.00713,-0.40132,1.786
-1.00341,-0.40132,1.786
-1.00753,-0.404466,1.8
-1.01215,-0.407836,1.815
-1.01615,-0.410982,1.829
-1.01234,-0.410982,1.829
-1.01681,-0.414353,1.844
-1.02121,-0.417723,1.859
-1.34874,-0.560185,2.493
-1.329,-0.554118,2.466
-1.33836,-0.560185,2.493
-1.30429,-0.548051,2.439
-1.3136,-0.554118,2.466
-1.32279,-0.560185,2.493
-1.3324,-0.566477,2.521
-1.32716,-0.566477,2.521
-1.30723,-0.560185,2.493
-1.30204,-0.560185,2.493
-1.31142,-0.566477,2.521
-1.27768,-0.554118,2.466
-1.27254,-0.554118,2.466
-1.28129,-0.560185,2.493
-1.2761,-0.560185,2.493
-1.24338,-0.548051,2.439
-1.25201,-0.554118,2.466
-1.32467,-0.822189,3.659
-1.33865,-0.835671,3.719
-1.30944,-0.822189,3.659
-1.30182,-0.822189,3.659
-1.15913,-0.74961,3.336
-1.15219,-0.74961,3.336
-1.14525,-0.74961,3.336
-1.1383,-0.74961,3.336
-1.24529,-0.879039,3.912
-1.25865,-0.894319,3.98
-1.25037,-0.894319,3.98
-1.31106,-0.943978,4.201
-1.30231,-0.943978,4.201
-1.27017,-0.926901,4.125
-1.23895,-0.910273,4.051
-1.253,-0.926901,4.125
-1.22209,-0.910273,4.051
-1.17202,-0.879039,3.912
-1.16388,-0.879039,3.912
-1.13594,-0.863984,3.845
-1.10916,-0.849603,3.781
-1.10129,-0.849603,3.781
-1.09343,-0.849603,3.781
-1.06776,-0.835671,3.719
-1.04291,-0.822189,3.659
-1.05228,-0.835671,3.719
-1.02769,-0.822189,3.659
-1.0039,-0.809156,3.601
-0.996407,-0.809156,3.601
-0.988912,-0.809156,3.601
-0.966156,-0.796573,3.545
-0.973924,-0.809156,3.601
-0.981996,-0.822189,3.659
-0.974381,-0.822189,3.659
-0.966766,-0.822189,3.659
-0.959151,-0.822189,3.659
-0.951536,-0.822189,3.659
-0.943921,-0.822189,3.659
-0.951659,-0.835671,3.719
-0.928691,-0.822189,3.659
-0.921076,-0.822189,3.659
-0.913461,-0.822189,3.659
-0.905846,-0.822189,3.659
-0.898231,-0.822189,3.659
-0.905221,-0.835671,3.719
-0.897481,-0.835671,3.719
-0.889741,-0.835671,3.719
-0.867772,-0.822189,3.659
-0.846522,-0.809156,3.601
-0.839028,-0.809156,3.601
-0.818602,-0.796573,3.545
-0.811224,-0.796573,3.545
-0.803847,-0.796573,3.545
-0.796469,-0.796573,3.545
-0.801557,-0.809156,3.601
-0.794062,-0.809156,3.601
-0.786568,-0.809156,3.601
-0.766958,-0.796573,3.545
-0.759581,-0.796573,3.545
-0.752203,-0.796573,3.545
-0.768777,-0.822189,3.659
-0.773644,-0.835671,3.719
-0.765904,-0.835671,3.719
-0.770804,-0.849603,3.781
-0.762935,-0.849603,3.781
-0.755066,-0.849603,3.781
-0.747197,-0.849603,3.781
-0.739328,-0.849603,3.781
-0.73146,-0.849603,3.781
-0.723591,-0.849603,3.781
-0.715722,-0.849603,3.781
-0.707853,-0.849603,3.781
-0.699984,-0.849603,3.781
-0.692115,-0.849603,3.781
-0.695829,-0.863984,3.845
-0.676378,-0.849603,3.781
-0.668509,-0.849603,3.781
-0.66064,-0.849603,3.781
-0.642067,-0.835671,3.719
-0.634327,-0.835671,3.719
-0.626588,-0.835671,3.719
-0.599212,-0.809156,3.601
-0.56477,-0.772305,3.437
-0.54123,-0.74961,3.336
-0.511705,-0.717927,3.195
-0.491304,-0.698378,3.108
-0.100322,-0.180661,0.804
-0.0986488,-0.180661,0.804
-0.0969755,-0.180661,0.804
-0.0949467,-0.179987,0.801
-0.092348,-0.17819,0.793
-0.0903546,-0.177516,0.79
-0.0883736,-0.176841,0.787
-0.0865153,-0.176392,0.785
-0.0842328,-0.175044,0.779
-0.0820813,-0.17392,0.774
-0.0801586,-0.173246,0.771
-0.0783503,-0.172797,0.769
-0.0764505,-0.172123,0.766
-0.0748563,-0.172123,0.766
-0.0729752,-0.171449,0.763
-0.0464293,-0.14763,0.657
-0.0447876,-0.146731,0.653
-0.0433621,-0.146507,0.652
-0.0420052,-0.146507,0.652
-0.0403989,-0.145608,0.648
-0.0390504,-0.145608,0.648
-0.0375854,-0.145158,0.646
-0.0361288,-0.144709,0.644
-0.0348966,-0.145158,0.646
-0.0331886,-0.143585,0.639
-0.031759,-0.143136,0.637
-0.0302422,-0.142237,0.633
-0.0289248,-0.142237,0.633
-0.0275639,-0.142012,0.632
-0.0261655,-0.141563,0.63
-0.0247755,-0.141114,0.628
-0.0233938,-0.140664,0.626
-0.0219145,-0.139541,0.621
-0.994903,-0.388468,1.745
-0.998657,-0.391362,1.758
-1.01085,-0.397595,1.786
-1.00713,-0.397595,1.786
-1.01128,-0.400712,1.8
-1.01593,-0.404051,1.815
-1.01215,-0.404051,1.815
-1.01615,-0.407168,1.829
-1.02065,-0.410507,1.844
-1.01681,-0.410507,1.844
-1.02121,-0.413846,1.859
-1.36388,-0.561219,2.521
-1.35864,-0.561219,2.521
-1.35339,-0.561219,2.521
-1.31873,-0.548975,2.466
-1.32798,-0.554986,2.493
-1.33765,-0.561219,2.521
-1.3324,-0.561219,2.521
-1.32716,-0.561219,2.521
-1.30723,-0.554986,2.493
-1.28794,-0.548975,2.466
-1.31142,-0.561219,2.521
-1.27768,-0.548975,2.466
-1.27254,-0.548975,2.466
-1.28129,-0.554986,2.493
-1.2761,-0.554986,2.493
-1.24338,-0.542964,2.439
-1.25201,-0.548975,2.466
-1.40031,-0.841717,3.781
-1.39244,-0.841717,3.781
-1.38457,-0.841717,3.781
-1.35413,-0.827915,3.719
-1.36884,-0.841717,3.781
-1.33865,-0.827915,3.719
-1.33091,-0.827915,3.719
-1.32317,-0.827915,3.719
-1.17651,-0.753783,3.386
-1.16946,-0.753783,3.386
-1.17992,-0.765137,3.437
-1.17277,-0.765137,3.437
-1.2272,-0.841717,3.781
-1.23997,-0.855965,3.845
-1.25343,-0.87088,3.912
-1.28954,-0.901824,4.051
-1.28111,-0.901824,4.051
-1.27268,-0.901824,4.051
-1.33602,-0.953026,4.281
-1.35254,-0.971281,4.363
-1.29357,-0.935217,4.201
-1.26159,-0.918298,4.125
-1.27609,-0.935217,4.201
-1.24442,-0.918298,4.125
-1.21366,-0.901824,4.051
-1.18411,-0.886018,3.98
-1.15573,-0.87088,3.912
-1.14759,-0.87088,3.912
-1.11994,-0.855965,3.845
-1.11193,-0.855965,3.845
-1.08556,-0.841717,3.781
-1.07769,-0.841717,3.781
-1.06982,-0.841717,3.781
-1.04454,-0.827915,3.719
-1.02007,-0.814558,3.659
-1.01246,-0.814558,3.659
-1.00484,-0.814558,3.659
-0.981418,-0.801646,3.601
-0.973924,-0.801646,3.601
-0.981996,-0.814558,3.659
-0.974381,-0.814558,3.659
-0.966766,-0.814558,3.659
-0.959151,-0.814558,3.659
-0.951536,-0.814558,3.659
-0.943921,-0.814558,3.659
-0.951659,-0.827915,3.719
-0.928691,-0.814558,3.659
-0.906476,-0.801646,3.601
-0.913461,-0.814558,3.659
-0.905846,-0.814558,3.659
-0.898231,-0.814558,3.659
-0.905221,-0.827915,3.719
-0.897481,-0.827915,3.719
-0.889741,-0.827915,3.719
-0.882001,-0.827915,3.719
-0.860157,-0.814558,3.659
-0.839028,-0.801646,3.601
-0.831533,-0.801646,3.601
-0.824039,-0.801646,3.601
-0.816545,-0.801646,3.601
-0.809051,-0.801646,3.601
-0.801557,-0.801646,3.601
-0.806852,-0.814558,3.659
-0.799237,-0.814558,3.659
-0.779074,-0.801646,3.601
-0.77158,-0.801646,3.601
-0.752203,-0.789179,3.545
-0.768777,-0.814558,3.659
-0.773644,-0.827915,3.719
-0.765904,-0.827915,3.719
-0.770804,-0.841717,3.781
-0.762935,-0.841717,3.781
-0.755066,-0.841717,3.781
-0.747197,-0.841717,3.781
-0.739328,-0.841717,3.781
-0.73146,-0.841717,3.781
-0.723591,-0.841717,3.781
-0.715722,-0.841717,3.781
-0.707853,-0.841717,3.781
-0.699984,-0.841717,3.781
-0.692115,-0.841717,3.781
-0.695829,-0.855965,3.845
-0.676378,-0.841717,3.781
-0.668509,-0.841717,3.781
-0.649807,-0.827915,3.719
-0.642067,-0.827915,3.719
-0.624094,-0.814558,3.659
-0.616479,-0.814558,3.659
-0.599212,-0.801646,3.601
-0.573479,-0.776935,3.49
-0.549342,-0.753783,3.386
-0.519073,-0.721504,3.241
-0.498101,-0.701468,3.151
-0.484835,-0.691896,3.108
-0.0986488,-0.178985,0.804
-0.0966137,-0.178317,0.801
-0.0949467,-0.178317,0.801
-0.0926974,-0.177204,0.796
-0.0903546,-0.175868,0.79
-0.0883736,-0.1752,0.787
-0.0865153,-0.174755,0.785
-0.0842328,-0.173419,0.779
-0.0820813,-0.172306,0.774
-0.0801586,-0.171638,0.771
-0.0785541,-0.171638,0.771
-0.0764505,-0.170525,0.766
-0.0748563,-0.170525,0.766
-0.0464293,-0.14626,0.657
-0.0449248,-0.145815,0.655
-0.0433621,-0.145147,0.652
-0.0420052,-0.145147,0.652
-0.0403989,-0.144256,0.648
-0.0389298,-0.143811,0.646
-0.037469,-0.143366,0.644
-0.0361288,-0.143366,0.644
-0.0348966,-0.143811,0.646
-0.0331886,-0.142253,0.639
-0.031759,-0.141807,0.637
-0.0301944,-0.140694,0.632
-0.0288791,-0.140694,0.632
-0.0275639,-0.140694,0.632
-0.0261655,-0.140249,0.63
-0.0246966,-0.139359,0.626
-0.0233938,-0.139359,0.626
-0.0219145,-0.138246,0.621
-0.0205225,-0.137578,0.618
-0.994903,-0.384828,1.745
-0.998657,-0.387695,1.758
-1.01085,-0.39387,1.786
-1.01502,-0.396958,1.8
-1.01128,-0.396958,1.8
-1.01593,-0.400266,1.815
-1.01996,-0.403353,1.829
-1.01615,-0.403353,1.829
-1.02065,-0.406661,1.844
-1.01681,-0.406661,1.844
-1.02121,-0.409969,1.859
-1.36913,-0.555961,2.521
-1.36388,-0.555961,2.521
-1.35864,-0.555961,2.521
-1.36842,-0.562136,2.549
-1.33317,-0.549786,2.493
-1.32798,-0.549786,2.493
-1.33765,-0.555961,2.521
-1.3324,-0.555961,2.521
-1.32716,-0.555961,2.521
-1.30723,-0.549786,2.493
-1.28794,-0.543832,2.466
-1.31142,-0.555961,2.521
-1.27768,-0.543832,2.466
-1.27254,-0.543832,2.466
-1.28129,-0.549786,2.493
-1.26228,-0.543832,2.466
-1.24338,-0.537878,2.439
-0.327934,-0.175543,0.796
-0.327097,-0.175985,0.798
-0.325437,-0.175985,0.798
-0.324993,-0.176646,0.801
-1.42401,-0.847946,3.845
-1.44069,-0.862721,3.912
-1.43254,-0.862721,3.912
-1.40001,-0.847946,3.845
-1.39201,-0.847946,3.845
-1.36097,-0.833832,3.781
-1.3531,-0.833832,3.781
-1.34523,-0.833832,3.781
-1.19423,-0.757969,3.437
-1.18707,-0.757969,3.437
-1.19812,-0.769657,3.49
-1.19085,-0.769657,3.49
-1.26971,-0.862721,3.912
-1.2835,-0.877717,3.98
-1.27522,-0.877717,3.98
-1.31309,-0.909695,4.125
-1.30451,-0.909695,4.125
-1.29592,-0.909695,4.125
-1.33602,-0.944098,4.281
-1.35254,-0.962181,4.363
-1.31821,-0.944098,4.281
-1.28483,-0.926455,4.201
-1.27609,-0.926455,4.201
-1.24442,-0.909695,4.125
-1.21366,-0.893375,4.051
-1.20523,-0.893375,4.051
-1.17582,-0.877717,3.98
-1.14759,-0.862721,3.912
-1.13945,-0.862721,3.912
-1.13131,-0.862721,3.912
-1.10393,-0.847946,3.845
-1.09593,-0.847946,3.845
-1.08793,-0.847946,3.845
-1.06195,-0.833832,3.781
-1.0368,-0.820159,3.719
-1.02906,-0.820159,3.719
-1.02132,-0.820159,3.719
-0.981418,-0.794136,3.601
-0.973924,-0.794136,3.601
-0.981996,-0.806927,3.659
-0.990358,-0.820159,3.719
-0.966766,-0.806927,3.659
-0.974879,-0.820159,3.719
-0.967139,-0.820159,3.719
-0.943921,-0.806927,3.659
-0.951659,-0.820159,3.719
-0.928691,-0.806927,3.659
-0.906476,-0.794136,3.601
-0.913461,-0.806927,3.659
-0.905846,-0.806927,3.659
-0.898231,-0.806927,3.659
-0.905221,-0.820159,3.719
-0.897481,-0.820159,3.719
-0.889741,-0.820159,3.719
-0.867772,-0.806927,3.659
-0.860157,-0.806927,3.659
-0.839028,-0.794136,3.601
-0.831533,-0.794136,3.601
-0.811224,-0.781786,3.545
-0.803847,-0.781786,3.545
-0.796469,-0.781786,3.545
-0.801557,-0.794136,3.601
-0.806852,-0.806927,3.659
-0.799237,-0.806927,3.659
-0.766958,-0.781786,3.545
-0.77158,-0.794136,3.601
-0.752203,-0.781786,3.545
-0.768777,-0.806927,3.659
-0.773644,-0.820159,3.719
-0.765904,-0.820159,3.719
-0.770804,-0.833832,3.781
-0.762935,-0.833832,3.781
-0.742685,-0.820159,3.719
-0.747197,-0.833832,3.781
-0.739328,-0.833832,3.781
-0.73146,-0.833832,3.781
-0.723591,-0.833832,3.781
-0.715722,-0.833832,3.781
-0.707853,-0.833832,3.781
-0.699984,-0.833832,3.781
-0.692115,-0.833832,3.781
-0.684247,-0.833832,3.781
-0.676378,-0.833832,3.781
-0.657547,-0.820159,3.719
-0.649807,-0.820159,3.719
-0.642067,-0.820159,3.719
-0.624094,-0.806927,3.659
-0.616479,-0.806927,3.659
-0.599212,-0.794136,3.601
-0.573479,-0.769657,3.49
-0.549342,-0.746721,3.386
-0.5266,-0.725109,3.288
-0.505056,-0.7046,3.195
-0.491543,-0.694896,3.151
-0.478367,-0.685414,3.108
-0.0986488,-0.177308,0.804
-0.0969755,-0.177308,0.804
-0.0949467,-0.176646,0.801
-0.0926974,-0.175543,0.796
-0.0903546,-0.17422,0.79
-0.0887104,-0.17422,0.79
-0.0865153,-0.173118,0.785
-0.0842328,-0.171794,0.779
-0.0820813,-0.170692,0.774
-0.0801586,-0.17003,0.771
-0.0785541,-0.17003,0.771
-0.0764505,-0.168928,0.766
-0.0748563,-0.168928,0.766
-0.0464293,-0.14489,0.657
-0.0449248,-0.144448,0.655
-0.0433621,-0.143787,0.652
-0.0420052,-0.143787,0.652
-0.0403989,-0.142905,0.648
-0.0389298,-0.142464,0.646
-0.037469,-0.142023,0.644
-0.0361288,-0.142023,0.644
-0.0347885,-0.142023,0.644
-0.0331886,-0.14092,0.639
-0.031759,-0.140479,0.637
-0.0301944,-0.139376,0.632
-0.0288791,-0.139376,0.632
-0.0275639,-0.139376,0.632
-0.0261655,-0.138935,0.63
-0.0247755,-0.138494,0.628
-0.0233938,-0.138053,0.626
-0.0219851,-0.137391,0.623
-0.0205557,-0.136509,0.619
-0.994903,-0.381189,1.745
-0.998657,-0.384029,1.758
-1.01085,-0.390145,1.786
-1.01502,-0.393204,1.8
-1.01128,-0.393204,1.8
-1.01593,-0.39648,1.815
-1.01996,-0.399539,1.829
-1.01615,-0.399539,1.829
-1.02065,-0.402815,1.844
-1.01681,-0.402815,1.844
-1.02121,-0.406092,1.859
-1.38434,-0.55682,2.549
-1.36388,-0.550703,2.521
-1.35864,-0.550703,2.521
-1.36842,-0.55682,2.549
-1.33317,-0.544587,2.493
-1.3429,-0.550703,2.521
-1.33765,-0.550703,2.521
-1.3324,-0.550703,2.521
-1.32716,-0.550703,2.521
-1.30723,-0.544587,2.493
-1.28794,-0.538689,2.466
-1.31142,-0.550703,2.521
-1.27768,-0.538689,2.466
-1.27254,-0.538689,2.466
-1.26741,-0.538689,2.466
-1.26228,-0.538689,2.466
-1.24338,-0.532791,2.439
-0.328349,-0.173228,0.793
-0.327934,-0.173883,0.796
-0.326278,-0.173883,0.796
-0.324621,-0.173883,0.796
-0.323776,-0.17432,0.798
-0.321308,-0.173883,0.796
-0.317242,-0.172573,0.79
-1.45602,-0.839926,3.845
-1.44802,-0.839926,3.845
-1.46511,-0.854562,3.912
-1.45697,-0.854562,3.912
-1.47401,-0.869417,3.98
-1.46573,-0.869417,3.98
-1.45745,-0.869417,3.98
-1.44916,-0.869417,3.98
-1.44088,-0.869417,3.98
-1.384,-0.839926,3.845
-1.376,-0.839926,3.845
-1.368,-0.839926,3.845
-1.33736,-0.825946,3.781
-1.23175,-0.774393,3.545
-1.20538,-0.762378,3.49
-1.217,-0.774393,3.545
-1.20962,-0.774393,3.545
-1.29179,-0.869417,3.98
-1.3064,-0.884926,4.051
-1.29797,-0.884926,4.051
-1.33729,-0.917693,4.201
-1.30451,-0.901092,4.125
-1.3198,-0.917693,4.201
-1.36162,-0.953082,4.363
-1.3792,-0.971868,4.449
-1.31821,-0.935169,4.281
-1.28483,-0.917693,4.201
-1.30039,-0.935169,4.281
-1.26734,-0.917693,4.201
-1.23583,-0.901092,4.125
-1.22725,-0.901092,4.125
-1.1968,-0.884926,4.051
-1.18837,-0.884926,4.051
-1.17994,-0.884926,4.051
-1.15097,-0.869417,3.98
-1.14269,-0.869417,3.98
-1.11503,-0.854562,3.912
-1.10689,-0.854562,3.912
-1.07993,-0.839926,3.845
-1.05408,-0.825946,3.781
-1.04621,-0.825946,3.781
-1.03834,-0.825946,3.781
-0.997225,-0.799295,3.659
-0.98961,-0.799295,3.659
-0.981996,-0.799295,3.659
-0.990358,-0.812402,3.719
-0.982619,-0.812402,3.719
-0.974879,-0.812402,3.719
-0.967139,-0.812402,3.719
-0.943921,-0.799295,3.659
-0.936306,-0.799295,3.659
-0.928691,-0.799295,3.659
-0.906476,-0.786626,3.601
-0.913461,-0.799295,3.659
-0.905846,-0.799295,3.659
-0.898231,-0.799295,3.659
-0.905221,-0.812402,3.719
-0.897481,-0.812402,3.719
-0.889741,-0.812402,3.719
-0.867772,-0.799295,3.659
-0.860157,-0.799295,3.659
-0.839028,-0.786626,3.601
-0.831533,-0.786626,3.601
-0.824039,-0.786626,3.601
-0.816545,-0.786626,3.601
-0.796469,-0.774393,3.545
-0.801557,-0.786626,3.601
-0.820083,-0.812402,3.719
-0.786568,-0.786626,3.601
-0.779074,-0.786626,3.601
-0.77158,-0.786626,3.601
-0.752203,-0.774393,3.545
-0.768777,-0.799295,3.659
-0.773644,-0.812402,3.719
-0.765904,-0.812402,3.719
-0.758164,-0.812402,3.719
-0.750425,-0.812402,3.719
-0.742685,-0.812402,3.719
-0.734945,-0.812402,3.719
-0.739328,-0.825946,3.781
-0.73146,-0.825946,3.781
-0.723591,-0.825946,3.781
-0.715722,-0.825946,3.781
-0.707853,-0.825946,3.781
-0.699984,-0.825946,3.781
-0.692115,-0.825946,3.781
-0.684247,-0.825946,3.781
-0.665287,-0.812402,3.719
-0.657547,-0.812402,3.719
-0.649807,-0.812402,3.719
-0.631709,-0.799295,3.659
-0.624094,-0.799295,3.659
-0.616479,-0.799295,3.659
-0.599212,-0.786626,3.601
-0.573479,-0.762378,3.49
-0.549342,-0.73966,3.386
-0.5266,-0.718252,3.288
-0.512328,-0.707985,3.241
-0.498407,-0.697936,3.195
-0.484985,-0.688325,3.151
-0.465522,-0.669757,3.066
-0.0990169,-0.176286,0.807
-0.0969755,-0.175631,0.804
-0.0949467,-0.174976,0.801
-0.0926974,-0.173883,0.796
-0.0906977,-0.173228,0.793
-0.0890473,-0.173228,0.793
-0.0870663,-0.172573,0.79
-0.0845572,-0.170825,0.782
-0.0823995,-0.169733,0.777
-0.0804705,-0.169078,0.774
-0.0785541,-0.168422,0.771
-0.0764505,-0.16733,0.766
-0.0465706,-0.143956,0.659
-0.0449248,-0.143082,0.655
-0.0434287,-0.142646,0.653
-0.0420052,-0.142427,0.652
-0.0403989,-0.141553,0.648
-0.0389298,-0.141116,0.646
-0.037469,-0.140679,0.644
-0.0361288,-0.140679,0.644
-0.0347885,-0.140679,0.644
-0.0331886,-0.139587,0.639
-0.0316593,-0.138713,0.635
-0.0301944,-0.138058,0.632
-0.0288791,-0.138058,0.632
-0.0274766,-0.137621,0.63
-0.0261655,-0.137621,0.63
-0.0246966,-0.136747,0.626
-0.0233938,-0.136747,0.626
-0.0219851,-0.136092,0.623
-0.0205225,-0.135,0.618
-0.994903,-0.37755,1.745
-0.998657,-0.380362,1.758
-1.01085,-0.38642,1.786
-1.01502,-0.389449,1.8
-1.01128,-0.389449,1.8
-1.01593,-0.392695,1.815
-1.01996,-0.395724,1.829
-1.01615,-0.395724,1.829
-1.02065,-0.398969,1.844
-1.01681,-0.398969,1.844
-1.02121,-0.402215,1.859
-1.38434,-0.551504,2.549
-1.36388,-0.545446,2.521
-1.37373,-0.551504,2.549
-1.36842,-0.551504,2.549
-1.33317,-0.539388,2.493
-1.3429,-0.545446,2.521
-1.35251,-0.551504,2.549
-1.3472,-0.551504,2.549
-1.32716,-0.545446,2.521
-1.32191,-0.545446,2.521
-1.30204,-0.539388,2.493
-1.31142,-0.545446,2.521
-1.29166,-0.539388,2.493
-1.27254,-0.533546,2.466
-1.26741,-0.533546,2.466
-1.26228,-0.533546,2.466
-1.24338,-0.527704,2.439
-0.334561,-0.172223,0.796
-0.332904,-0.172223,0.796
-0.331247,-0.172223,0.796
-0.329591,-0.172223,0.796
-0.328758,-0.172656,0.798
-0.327097,-0.172656,0.798
-0.325437,-0.172656,0.798
-0.324993,-0.173305,0.801
-0.321308,-0.172223,0.796
-0.318446,-0.171574,0.793
-1.43128,-0.791664,3.659
-1.44701,-0.804646,3.719
-1.43927,-0.804646,3.719
-1.45539,-0.81806,3.781
-1.47203,-0.831907,3.845
-1.46402,-0.831907,3.845
-1.48139,-0.846404,3.912
-1.49886,-0.861116,3.98
-1.49058,-0.861116,3.98
-1.48229,-0.861116,3.98
-1.50031,-0.876478,4.051
-1.49188,-0.876478,4.051
-1.48344,-0.876478,4.051
-1.47501,-0.876478,4.051
-1.46658,-0.876478,4.051
-1.40812,-0.846404,3.912
-1.39998,-0.846404,3.912
-1.39184,-0.846404,3.912
-1.36,-0.831907,3.845
-1.32949,-0.81806,3.781
-1.32162,-0.81806,3.781
-1.31375,-0.81806,3.781
-1.26375,-0.791664,3.659
-1.25613,-0.791664,3.659
-1.26899,-0.804646,3.719
-1.28228,-0.81806,3.781
-1.29598,-0.831907,3.845
-1.26654,-0.81806,3.781
-1.30228,-0.846404,3.912
-1.29414,-0.846404,3.912
-1.30835,-0.861116,3.98
-1.32326,-0.876478,4.051
-1.33885,-0.892488,4.125
-1.33026,-0.892488,4.125
-1.34603,-0.908932,4.201
-1.38886,-0.943982,4.363
-1.35384,-0.926241,4.281
-1.34493,-0.926241,4.281
-1.41623,-0.981845,4.538
-1.40679,-0.981845,4.538
-1.34345,-0.943982,4.363
-1.3093,-0.926241,4.281
-1.32529,-0.943982,4.363
-1.29148,-0.926241,4.281
-1.2586,-0.908932,4.201
-1.24986,-0.908932,4.201
-1.24111,-0.908932,4.201
-1.21008,-0.892488,4.125
-1.20149,-0.892488,4.125
-1.19291,-0.892488,4.125
-1.16308,-0.876478,4.051
-1.15465,-0.876478,4.051
-1.14622,-0.876478,4.051
-1.09874,-0.846404,3.912
-1.07192,-0.831907,3.845
-1.06392,-0.831907,3.845
-1.05592,-0.831907,3.845
-1.01358,-0.804646,3.719
-0.98961,-0.791664,3.659
-0.998098,-0.804646,3.719
-0.990358,-0.804646,3.719
-0.982619,-0.804646,3.719
-0.974879,-0.804646,3.719
-0.967139,-0.804646,3.719
-0.959399,-0.804646,3.719
-0.951659,-0.804646,3.719
-0.928691,-0.791664,3.659
-0.906476,-0.779115,3.601
-0.913461,-0.791664,3.659
-0.905846,-0.791664,3.659
-0.898231,-0.791664,3.659
-0.905221,-0.804646,3.719
-0.897481,-0.804646,3.719
-0.889741,-0.804646,3.719
-0.882001,-0.804646,3.719
-0.860157,-0.791664,3.659
-0.852542,-0.791664,3.659
-0.831533,-0.779115,3.601
-0.824039,-0.779115,3.601
-0.803847,-0.766999,3.545
-0.796469,-0.766999,3.545
-0.801557,-0.779115,3.601
-0.820083,-0.804646,3.719
-0.786568,-0.779115,3.601
-0.779074,-0.779115,3.601
-0.77158,-0.779115,3.601
-0.752203,-0.766999,3.545
-0.768777,-0.791664,3.659
-0.761162,-0.791664,3.659
-0.753547,-0.791664,3.659
-0.758164,-0.804646,3.719
-0.750425,-0.804646,3.719
-0.742685,-0.804646,3.719
-0.734945,-0.804646,3.719
-0.739328,-0.81806,3.781
-0.73146,-0.81806,3.781
-0.723591,-0.81806,3.781
-0.703986,-0.804646,3.719
-0.707853,-0.81806,3.781
-0.699984,-0.81806,3.781
-0.680766,-0.804646,3.719
-0.684247,-0.81806,3.781
-0.665287,-0.804646,3.719
-0.657547,-0.804646,3.719
-0.649807,-0.804646,3.719
-0.631709,-0.791664,3.659
-0.624094,-0.791664,3.659
-0.616479,-0.791664,3.659
-0.589894,-0.766999,3.545
-0.56477,-0.743632,3.437
-0.549342,-0.732598,3.386
-0.5266,-0.711394,3.288
-0.512328,-0.701225,3.241
-0.498407,-0.691273,3.195
-0.484985,-0.681753,3.151
-0.471899,-0.672449,3.108
-0.459141,-0.663362,3.066
-0.0990169,-0.174603,0.807
-0.0973374,-0.174603,0.807
-0.0953023,-0.173954,0.804
-0.0929303,-0.172656,0.798
-0.0906977,-0.171574,0.793
-0.0890473,-0.171574,0.793
-0.087397,-0.171574,0.793
-0.0848816,-0.169843,0.785
-0.0823995,-0.168112,0.777
-0.0804705,-0.167463,0.774
-0.0785541,-0.166814,0.771
-0.0764505,-0.165732,0.766
-0.0465706,-0.142582,0.659
-0.0449248,-0.141716,0.655
-0.0434287,-0.141284,0.653
-0.0420052,-0.141067,0.652
-0.0403989,-0.140202,0.648
-0.0389298,-0.139769,0.646
-0.037469,-0.139336,0.644
-0.0361288,-0.139336,0.644
-0.0347885,-0.139336,0.644
-0.0330847,-0.137822,0.637
-0.0316593,-0.137389,0.635
-0.0301944,-0.13674,0.632
-0.0288791,-0.13674,0.632
-0.0273894,-0.135875,0.628
-0.0260824,-0.135875,0.628
-0.0246966,-0.135442,0.626
-0.0233564,-0.135226,0.625
-0.0219851,-0.134793,0.623
-0.0205225,-0.133711,0.618
-0.987491,-0.371125,1.732
-0.991272,-0.37391,1.745
-1.01085,-0.382696,1.786
-1.01502,-0.385695,1.8
-1.0197,-0.38891,1.815
-1.01593,-0.38891,1.815
-1.01996,-0.391909,1.829
-1.01615,-0.391909,1.829
-1.02065,-0.395124,1.844
-1.02508,-0.398338,1.859
-1.02121,-0.398338,1.859
-1.36913,-0.540188,2.521
-1.36388,-0.540188,2.521
-1.37373,-0.546188,2.549
-1.36842,-0.546188,2.549
-1.33317,-0.534188,2.493
-1.3429,-0.540188,2.521
-1.35251,-0.546188,2.549
-1.3472,-0.546188,2.549
-1.32716,-0.540188,2.521
-1.32191,-0.540188,2.521
-1.30204,-0.534188,2.493
-1.31142,-0.540188,2.521
-1.29166,-0.534188,2.493
-1.27254,-0.528403,2.466
-1.26741,-0.528403,2.466
-1.26228,-0.528403,2.466
-1.24338,-0.522617,2.439
-0.336217,-0.170563,0.796
-0.334561,-0.170563,0.796
-0.332904,-0.170563,0.796
-0.331247,-0.170563,0.796
-0.328349,-0.16992,0.793
-0.326698,-0.16992,0.793
-0.325048,-0.16992,0.793
-0.323398,-0.16992,0.793
-0.322964,-0.170563,0.796
-0.320097,-0.16992,0.793
-0.317242,-0.169277,0.79
-1.47797,-0.79689,3.719
-1.44651,-0.784033,3.659
-1.43889,-0.784033,3.659
-1.479,-0.810175,3.781
-1.47113,-0.810175,3.781
-1.46326,-0.810175,3.781
-1.45539,-0.810175,3.781
-1.49768,-0.838245,3.912
-1.46402,-0.823888,3.845
-1.48139,-0.838245,3.912
-1.49886,-0.852815,3.98
-1.51717,-0.868029,4.051
-1.50874,-0.868029,4.051
-1.52771,-0.883885,4.125
-1.49188,-0.868029,4.051
-1.48344,-0.868029,4.051
-1.47501,-0.868029,4.051
-1.46658,-0.868029,4.051
-1.40812,-0.838245,3.912
-1.39998,-0.838245,3.912
-1.41603,-0.852815,3.98
-1.3837,-0.838245,3.912
-1.352,-0.823888,3.845
-1.34399,-0.823888,3.845
-1.31375,-0.810175,3.781
-1.28447,-0.79689,3.719
-1.27673,-0.79689,3.719
-1.29015,-0.810175,3.781
-1.30398,-0.823888,3.845
-1.31856,-0.838245,3.912
-1.28798,-0.823888,3.845
-1.32492,-0.852815,3.98
-1.31663,-0.852815,3.98
-1.33169,-0.868029,4.051
-1.34743,-0.883885,4.125
-1.36352,-0.90017,4.201
-1.35477,-0.90017,4.201
-1.37166,-0.917312,4.281
-1.44456,-0.972381,4.538
-1.40697,-0.95331,4.449
-1.3707,-0.934883,4.363
-1.44494,-0.992094,4.63
-1.43531,-0.992094,4.63
-1.36994,-0.95331,4.449
-1.3093,-0.917312,4.281
-1.35142,-0.95331,4.449
-1.31621,-0.934883,4.363
-1.28257,-0.917312,4.281
-1.27366,-0.917312,4.281
-1.26475,-0.917312,4.281
-1.23237,-0.90017,4.201
-1.22363,-0.90017,4.201
-1.21489,-0.90017,4.201
-1.18432,-0.883885,4.125
-1.17574,-0.883885,4.125
-1.16715,-0.883885,4.125
-1.11784,-0.852815,3.98
-1.0906,-0.838245,3.912
-1.08246,-0.838245,3.912
-1.07432,-0.838245,3.912
-1.01358,-0.79689,3.719
-0.98961,-0.784033,3.659
-0.998098,-0.79689,3.719
-0.990358,-0.79689,3.719
-0.982619,-0.79689,3.719
-0.959151,-0.784033,3.659
-0.967139,-0.79689,3.719
-0.959399,-0.79689,3.719
-0.936306,-0.784033,3.659
-0.928691,-0.784033,3.659
-0.892379,-0.759606,3.545
-0.898982,-0.771605,3.601
-0.891487,-0.771605,3.601
-0.883993,-0.771605,3.601
-0.890616,-0.784033,3.659
-0.897481,-0.79689,3.719
-0.889741,-0.79689,3.719
-0.882001,-0.79689,3.719
-0.860157,-0.784033,3.659
-0.852542,-0.784033,3.659
-0.831533,-0.771605,3.601
-0.824039,-0.771605,3.601
-0.803847,-0.759606,3.545
-0.796469,-0.759606,3.545
-0.801557,-0.771605,3.601
-0.806852,-0.784033,3.659
-0.774336,-0.759606,3.545
-0.779074,-0.771605,3.601
-0.77158,-0.771605,3.601
-0.752203,-0.759606,3.545
-0.756591,-0.771605,3.601
-0.761162,-0.784033,3.659
-0.753547,-0.784033,3.659
-0.758164,-0.79689,3.719
-0.750425,-0.79689,3.719
-0.730703,-0.784033,3.659
-0.734945,-0.79689,3.719
-0.739328,-0.810175,3.781
-0.719465,-0.79689,3.719
-0.711725,-0.79689,3.719
-0.703986,-0.79689,3.719
-0.707853,-0.810175,3.781
-0.688506,-0.79689,3.719
-0.680766,-0.79689,3.719
-0.673026,-0.79689,3.719
-0.665287,-0.79689,3.719
-0.646938,-0.784033,3.659
-0.639323,-0.784033,3.659
-0.621695,-0.771605,3.601
-0.614201,-0.771605,3.601
-0.606707,-0.771605,3.601
-0.589894,-0.759606,3.545
-0.56477,-0.736464,3.437
-0.549342,-0.725536,3.386
-0.5266,-0.704537,3.288
-0.512328,-0.694466,3.241
-0.498407,-0.684609,3.195
-0.484985,-0.675181,3.151
-0.471899,-0.665967,3.108
-0.459141,-0.656968,3.066
-0.0990169,-0.17292,0.807
-0.0969755,-0.172277,0.804
-0.0949467,-0.171634,0.801
-0.0929303,-0.170992,0.798
-0.0906977,-0.16992,0.793
-0.0893842,-0.170563,0.796
-0.087397,-0.16992,0.793
-0.0850978,-0.168635,0.787
-0.0826116,-0.16692,0.779
-0.0807824,-0.166492,0.777
-0.0785541,-0.165206,0.771
-0.0767499,-0.164778,0.769
-0.0465706,-0.141207,0.659
-0.0449248,-0.14035,0.655
-0.0434287,-0.139922,0.653
-0.0420052,-0.139707,0.652
-0.0403989,-0.13885,0.648
-0.0389298,-0.138422,0.646
-0.037469,-0.137993,0.644
-0.0360166,-0.137565,0.642
-0.0346805,-0.137565,0.642
-0.0330847,-0.136493,0.637
-0.0315596,-0.135636,0.633
-0.0300989,-0.134993,0.63
-0.0288791,-0.135422,0.632
-0.0273894,-0.134565,0.628
-0.0260824,-0.134565,0.628
-0.0246571,-0.133922,0.625
-0.0233564,-0.133922,0.625
-0.0219851,-0.133493,0.623
-0.0205225,-0.132422,0.618
-0.979509,-0.364542,1.718
-0.991272,-0.370271,1.745
-1.00292,-0.376,1.772
-1.00713,-0.378971,1.786
-1.01128,-0.381941,1.8
-1.01593,-0.385124,1.815
-1.01996,-0.388095,1.829
-1.01615,-0.388095,1.829
-1.02065,-0.391278,1.844
-1.01681,-0.391278,1.844
-1.02121,-0.394461,1.859
-1.40009,-0.547025,2.578
-1.37903,-0.540871,2.549
-1.38936,-0.547025,2.578
-1.38399,-0.547025,2.578
-1.36312,-0.540871,2.549
-1.35781,-0.540871,2.549
-1.3679,-0.547025,2.578
-1.36253,-0.547025,2.578
-1.3419,-0.540871,2.549
-1.33659,-0.540871,2.549
-1.31666,-0.53493,2.521
-1.32598,-0.540871,2.549
-1.30617,-0.53493,2.521
-1.27254,-0.52326,2.466
-1.26741,-0.52326,2.466
-1.26228,-0.52326,2.466
-1.24338,-0.517531,2.439
-0.33495,-0.168266,0.793
-0.3333,-0.168266,0.793
-0.331649,-0.168266,0.793
-0.328751,-0.16763,0.79
-0.327106,-0.16763,0.79
-0.325462,-0.16763,0.79
-0.323818,-0.16763,0.79
-0.322174,-0.16763,0.79
-0.321747,-0.168266,0.793
-0.318886,-0.16763,0.79
-1.50261,-0.802289,3.781
-1.49474,-0.802289,3.781
-1.48687,-0.802289,3.781
-1.50403,-0.815869,3.845
-1.49603,-0.815869,3.845
-1.48803,-0.815869,3.845
-1.48003,-0.815869,3.845
-1.49768,-0.830086,3.912
-1.48953,-0.830086,3.912
-1.50714,-0.844515,3.98
-1.5256,-0.85958,4.051
-1.51717,-0.85958,4.051
-1.5363,-0.875282,4.125
-1.52771,-0.875282,4.125
